# .PCD v0.7 - Point Cloud Data file format
VERSION 0.7
FIELDS x y z
SIZE 4 4 4
TYPE F F F
COUNT 1 1 1
WIDTH 129
HEIGHT 1
VIEWPOINT 0 0 0 1 0 0 0
POINTS 129
DATA ascii
11.95034 3.3996382 -0.57940471
11.652275 3.2775071 -0.84642506
11.839211 3.3300879 -0.5735352
11.812469 3.2847722 -0.57176501
11.52599 3.1704566 -1.1152607
11.813892 3.24965 -0.57139236
11.52519 3.1356456 -1.1143317
11.817137 3.2150753 -0.57111287
11.524829 3.0988529 -1.1134028
11.816978 3.1774075 -0.57064706
11.523814 3.0641007 -1.112474
11.821942 3.1433709 -0.57046068
11.522696 3.0293727 -1.111545
11.813286 3.1057703 -0.56962222
11.495109 2.9878283 -1.3889301
11.52533 2.9956832 -1.1109877
11.796776 3.0662379 -0.56841105
11.481349 2.9457786 -1.3861426
11.525039 2.9569881 -1.1100588
11.827637 3.0346258 -0.56943589
11.476053 2.9102836 -1.3845165
11.521669 2.9218519 -1.1089441
11.799272 2.9922507 -0.5676657
11.534903 2.8888056 -1.6711907
11.492345 2.8781474 -1.3854456
11.516768 2.884264 -1.1076436
11.82554 2.9615929 -0.56850421
11.538154 2.8511302 -1.6703557
11.482046 2.837266 -1.3831227
11.525772 2.8480709 -1.1076436
11.842544 2.9263465 -0.56887686
11.54607 2.8189006 -1.6703557
11.491853 2.8056641 -1.3833549
11.516268 2.8116248 -1.1059715
11.831261 2.8885283 -0.56794518
11.592403 2.7959306 -1.6759226
11.501575 2.774024 -1.3835872
11.518269 2.7780504 -1.1054142
11.839281 2.8554742 -0.56794518
11.480716 2.7350926 -1.6586651
11.505412 2.7409761 -1.3831227
11.516295 2.7435689 -1.1044852
11.856926 2.8247185 -0.56841105
11.492165 2.7039309 -1.6592219
11.514954 2.7092929 -1.3833549
11.510342 2.7082078 -1.1031847
11.851154 2.7883956 -0.56775886
11.500603 2.6678107 -1.6592219
11.519539 2.6722033 -1.3828902
11.503276 2.6684306 -1.1016984
11.854017 2.7497928 -0.56747931
11.509938 2.6361287 -1.6595002
11.519212 2.6382525 -1.3819611
11.504859 2.6349654 -1.1011411
11.857756 2.7157896 -0.56729305
11.517254 2.6039784 -1.6595002
11.516846 2.6038861 -1.3807995
11.525769 2.6059036 -1.1024417
11.786981 2.6649621 -0.84502989
11.86919 2.6835489 -0.56747931
11.517199 2.5680671 -1.6583868
11.514828 2.5675385 -1.3796381
11.519844 2.5686572 -1.1011411
11.882951 2.6496215 -0.56775886
11.51316 2.5313339 -1.6567167
11.524333 2.5337906 -1.3798703
11.519635 2.5327575 -1.1003979
11.896612 2.6156414 -0.56803834
11.520183 2.4991753 -1.6567167
11.519717 2.4990742 -1.3784766
11.563639 2.5086024 -1.1039279
11.700601 2.5383148 -0.83721721
11.907776 2.5832591 -0.56822473
11.520232 2.4613128 -1.6556034
11.531397 2.4636981 -1.3789412
11.563673 2.4705942 -1.1031847
11.93537 2.5500076 -0.56915635
11.527061 2.4291291 -1.6556034
11.540176 2.4318929 -1.3791735
11.525712 2.4288449 -1.0989118
11.96395 2.5211959 -0.57018119
11.540033 2.3961325 -1.6564384
11.562899 2.4008801 -1.3810319
11.595259 2.4075992 -1.1048568
12.041796 2.5003164 -0.5735352
11.558322 2.3662772 -1.6581085
11.585128 2.3717649 -1.3828902
11.668268 2.3887858 -1.1111735
12.10745 2.4786971 -0.57633024
11.594006 2.33987 -1.6622837
11.607284 2.3425498 -1.3847487
11.684651 2.3581638 -1.1121023
12.267074 2.4757068 -0.58359724
11.630035 2.3112526 -1.6664588
11.637562 2.3127484 -1.3875363
11.716988 2.3285327 -1.1145175
12.388017 2.4618871 -0.58900094
11.71419 2.2939875 -1.6775928
11.679066 2.2871091 -1.3917177
11.762529 2.3034539 -1.1182332
12.541887 2.4560754 -0.59598839
11.789009 2.2723424 -1.6873348
11.806735 2.2757592 -1.4061204
11.824063 2.2790992 -1.1234351
12.099201 2.3321323 -0.86163193
11.846292 2.2469521 -1.6945719
11.914922 2.2599697 -1.4182001
11.88164 2.2536571 -1.1282656
12.184474 2.3110971 -0.86721247
11.955705 2.2331319 -1.7093241
11.999295 2.2412739 -1.4274923
12.050361 2.2508121 -1.1436856
12.34974 2.3067312 -0.87851304
12.069027 2.2194397 -1.7246331
12.091469 2.2235668 -1.4377134
12.211321 2.2456071 -1.1583625
12.405189 2.2812586 -0.88200086
12.20591 2.2049944 -1.45049
12.339813 2.2291839 -1.1698811
12.608628 2.2777452 -0.89595217
12.87992 2.2873085 -1.8384769
12.319972 2.1878688 -1.4632666
12.467935 2.2141452 -1.1813997
12.788198 2.2710199 -0.90822929
12.878454 2.2499647 -1.8373635
12.371041 2.1613157 -1.4686096
12.609424 2.2029631 -1.1942189
12.451795 2.1373794 -1.4774369
12.929926 2.2194517 -1.2239442
